-125.00000	38.00000	0.00000
-125.00000	39.00000	0.00000
-125.00000	40.00000	0.00000
-125.00000	41.00000	0.00000
-125.00000	42.00000	0.00000
-125.00000	43.00000	0.26914
-125.00000	44.00000	0.00000
-125.00000	45.00000	0.00000
-125.00000	46.00000	0.00000
-125.00000	47.00000	0.00000
-125.00000	48.00000	0.22676
-125.00000	49.00000	0.00000
-124.00000	38.00000	0.00000
-124.00000	39.00000	0.30207
-124.00000	40.00000	0.29713
-124.00000	41.00000	0.25857
-124.00000	42.00000	0.18434
-124.00000	43.00000	0.14339
-124.00000	44.00000	0.14344
-124.00000	45.00000	0.20432
-124.00000	46.00000	0.14049
-124.00000	47.00000	0.17928
-124.00000	48.00000	0.20802
-124.00000	49.00000	0.00000
-123.00000	38.00000	0.18004
-123.00000	39.00000	0.23450
-123.00000	40.00000	0.25123
-123.00000	41.00000	0.12025
-123.00000	42.00000	0.15981
-123.00000	43.00000	0.13526
-123.00000	44.00000	0.07746
-123.00000	45.00000	0.09423
-123.00000	46.00000	0.06864
-123.00000	47.00000	0.10716
-123.00000	48.00000	0.08201
-123.00000	49.00000	0.08968
-122.00000	38.00000	0.17157
-122.00000	39.00000	0.09411
-122.00000	40.00000	0.07141
-122.00000	41.00000	0.08350
-122.00000	42.00000	0.10623
-122.00000	43.00000	0.06121
-122.00000	44.00000	0.07060
-122.00000	45.00000	0.04090
-122.00000	46.00000	0.09050
-122.00000	47.00000	0.09065
-122.00000	48.00000	0.05385
-122.00000	49.00000	0.05355
-121.00000	38.00000	0.11081
-121.00000	39.00000	0.02266
-121.00000	40.00000	0.06359
-121.00000	41.00000	0.07413
-121.00000	42.00000	0.07433
-121.00000	43.00000	0.07269
-121.00000	44.00000	0.05128
-121.00000	45.00000	0.01884
-121.00000	46.00000	0.06200
-121.00000	47.00000	0.05393
-121.00000	48.00000	0.03052
-121.00000	49.00000	0.04365
-120.00000	38.00000	0.10242
-120.00000	39.00000	0.11048
-120.00000	40.00000	0.07759
-120.00000	41.00000	0.04519
-120.00000	42.00000	0.07420
-120.00000	43.00000	0.01756
-120.00000	44.00000	0.03597
-120.00000	45.00000	0.00327
-120.00000	46.00000	0.03257
-120.00000	47.00000	0.01102
-120.00000	48.00000	-0.02735
-120.00000	49.00000	0.03285
-119.00000	38.00000	0.25251
-119.00000	39.00000	0.16026
-119.00000	40.00000	0.07051
-119.00000	41.00000	0.06252
-119.00000	42.00000	0.04987
-119.00000	43.00000	0.02680
-119.00000	44.00000	0.03025
-119.00000	45.00000	0.07319
-119.00000	46.00000	0.02501
-119.00000	47.00000	-0.02828
-119.00000	48.00000	-0.01393
-119.00000	49.00000	-0.00389
-118.00000	38.00000	0.21364
-118.00000	39.00000	0.14539
-118.00000	40.00000	0.07258
-118.00000	41.00000	0.05316
-118.00000	42.00000	0.04161
-118.00000	43.00000	0.02993
-118.00000	44.00000	0.04426
-118.00000	45.00000	0.10085
-118.00000	46.00000	0.08680
-118.00000	47.00000	-0.00254
-118.00000	48.00000	0.00531
-118.00000	49.00000	0.01400
-117.00000	38.00000	0.13511
-117.00000	39.00000	0.15738
-117.00000	40.00000	0.09026
-117.00000	41.00000	0.08607
-117.00000	42.00000	0.08819
-117.00000	43.00000	0.04928
-117.00000	44.00000	0.03044
-117.00000	45.00000	0.08373
-117.00000	46.00000	0.08425
-117.00000	47.00000	0.03143
-117.00000	48.00000	0.04131
-117.00000	49.00000	0.04400
-116.00000	38.00000	0.10229
-116.00000	39.00000	0.15809
-116.00000	40.00000	0.11146
-116.00000	41.00000	0.09269
-116.00000	42.00000	0.07673
-116.00000	43.00000	0.06910
-116.00000	44.00000	0.04514
-116.00000	45.00000	0.06119
-116.00000	46.00000	0.07830
-116.00000	47.00000	0.07531
-116.00000	48.00000	0.07525
-116.00000	49.00000	0.06533
-115.00000	38.00000	0.12848
-115.00000	39.00000	0.13651
-115.00000	40.00000	0.11857
-115.00000	41.00000	0.09374
-115.00000	42.00000	0.08340
-115.00000	43.00000	0.05986
-115.00000	44.00000	0.09094
-115.00000	45.00000	0.08078
-115.00000	46.00000	0.06909
-115.00000	47.00000	0.11664
-115.00000	48.00000	0.10371
-115.00000	49.00000	0.06952
-114.00000	38.00000	0.12635
-114.00000	39.00000	0.13726
-114.00000	40.00000	0.11643
-114.00000	41.00000	0.07111
-114.00000	42.00000	0.07504
-114.00000	43.00000	0.05785
-114.00000	44.00000	0.08044
-114.00000	45.00000	0.09002
-114.00000	46.00000	0.08634
-114.00000	47.00000	0.09345
-114.00000	48.00000	0.10031
-114.00000	49.00000	0.04679
-113.00000	38.00000	0.12885
-113.00000	39.00000	0.14971
-113.00000	40.00000	0.11988
-113.00000	41.00000	0.08867
-113.00000	42.00000	0.05975
-113.00000	43.00000	0.07564
-113.00000	44.00000	0.09309
-113.00000	45.00000	0.08633
-113.00000	46.00000	0.09762
-113.00000	47.00000	0.10548
-113.00000	48.00000	0.04436
-113.00000	49.00000	0.01921
-112.00000	38.00000	0.10226
-112.00000	39.00000	0.14612
-112.00000	40.00000	0.16026
-112.00000	41.00000	0.10801
-112.00000	42.00000	0.06690
-112.00000	43.00000	0.06928
-112.00000	44.00000	0.10788
-112.00000	45.00000	0.07636
-112.00000	46.00000	0.07296
-112.00000	47.00000	0.05347
-112.00000	48.00000	-0.00158
-112.00000	49.00000	-0.01800
-111.00000	38.00000	0.03187
-111.00000	39.00000	0.09162
-111.00000	40.00000	0.13859
-111.00000	41.00000	0.11527
-111.00000	42.00000	0.06564
-111.00000	43.00000	0.05274
-111.00000	44.00000	0.11267
-111.00000	45.00000	0.09155
-111.00000	46.00000	0.06163
-111.00000	47.00000	0.03146
-111.00000	48.00000	-0.02010
-111.00000	49.00000	-0.01282
-110.00000	38.00000	-0.01863
-110.00000	39.00000	0.02740
-110.00000	40.00000	0.10258
-110.00000	41.00000	0.09116
-110.00000	42.00000	0.06518
-110.00000	43.00000	0.03082
-110.00000	44.00000	0.07246
-110.00000	45.00000	0.07683
-110.00000	46.00000	0.06280
-110.00000	47.00000	0.03174
-110.00000	48.00000	-0.00046
-110.00000	49.00000	-0.00605
-109.00000	38.00000	0.01585
-109.00000	39.00000	-0.00178
-109.00000	40.00000	0.02785
-109.00000	41.00000	0.10698
-109.00000	42.00000	0.08020
-109.00000	43.00000	0.02893
-109.00000	44.00000	0.05579
-109.00000	45.00000	0.00233
-109.00000	46.00000	0.02953
-109.00000	47.00000	0.03186
-109.00000	48.00000	0.03119
-109.00000	49.00000	0.02949
-108.00000	38.00000	0.07203
-108.00000	39.00000	0.01128
-108.00000	40.00000	0.03016
-108.00000	41.00000	0.07812
-108.00000	42.00000	0.10005
-108.00000	43.00000	0.05235
-108.00000	44.00000	0.02186
-108.00000	45.00000	-0.03157
-108.00000	46.00000	0.02359
-108.00000	47.00000	0.03648
-108.00000	48.00000	0.03680
-108.00000	49.00000	0.03477
-107.00000	38.00000	0.07671
-107.00000	39.00000	0.03173
-107.00000	40.00000	0.00884
-107.00000	41.00000	0.02114
-107.00000	42.00000	0.05265
-107.00000	43.00000	0.03407
-107.00000	44.00000	0.02589
-107.00000	45.00000	0.03278
-107.00000	46.00000	0.03320
-107.00000	47.00000	0.03945
-107.00000	48.00000	0.04253
-107.00000	49.00000	0.04657
-106.00000	38.00000	0.03093
-106.00000	39.00000	0.03093
-106.00000	40.00000	0.00568
-106.00000	41.00000	-0.02734
-106.00000	42.00000	-0.00959
-106.00000	43.00000	0.05149
-106.00000	44.00000	0.07654
-106.00000	45.00000	0.06948
-106.00000	46.00000	0.04325
-106.00000	47.00000	0.05311
-106.00000	48.00000	0.04970
-106.00000	49.00000	0.04538
-105.00000	38.00000	0.00000
-105.00000	39.00000	0.00000
-105.00000	40.00000	0.00000
-105.00000	41.00000	0.00000
-105.00000	42.00000	0.00000
-105.00000	43.00000	0.00000
-105.00000	44.00000	0.00000
-105.00000	45.00000	0.00000
-105.00000	46.00000	0.00000
-105.00000	47.00000	0.00000
-105.00000	48.00000	0.00000
-105.00000	49.00000	0.00000
