-125,40,3.6033
-125,41,3.6256
-125,43,3.7057
-125,44,3.7055
-125,45,3.7227
-125,46,3.7399
-125,47,3.7422
-125,48,3.6646
-125,49,3.6453
-124,39,3.7005
-124,40,3.6185
-124,41,3.5959
-124,42,3.5676
-124,43,3.5887
-124,44,3.616
-124,45,3.6937
-124,46,3.6268
-124,47,3.6057
-124,48,3.6027
-124,49,3.5651
-123,38,3.7482
-123,39,3.6668
-123,40,3.5671
-123,41,3.4672
-123,42,3.5138
-123,43,3.5474
-123,44,3.5434
-123,45,3.5648
-123,46,3.5414
-123,47,3.5229
-123,48,3.4773
-123,49,3.528
-122,38,3.7346
-122,39,3.6211
-122,40,3.5142
-122,41,3.4693
-122,42,3.4588
-122,43,3.4358
-122,44,3.4893
-122,45,3.4975
-122,46,3.5403
-122,47,3.5283
-122,48,3.502
-122,49,3.5113
-121,38,3.6735
-121,39,3.5714
-121,40,3.5136
-121,41,3.457
-121,42,3.4353
-121,43,3.4295
-121,44,3.4607
-121,45,3.5026
-121,46,3.5425
-121,47,3.5543
-121,48,3.5582
-121,49,3.534
-120,38,3.5757
-120,39,3.5499
-120,40,3.5258
-120,41,3.4708
-120,42,3.457
-120,43,3.4075
-120,44,3.4768
-120,45,3.5346
-120,46,3.5987
-120,47,3.6202
-120,48,3.5927
-120,49,3.559
-119,38,3.554
-119,39,3.5565
-119,40,3.5361
-119,41,3.5347
-119,42,3.4756
-119,43,3.4599
-119,44,3.5091
-119,45,3.5861
-119,46,3.6236
-119,47,3.6473
-119,48,3.6342
-119,49,3.5736
-118,38,3.5425
-118,39,3.5664
-118,40,3.5772
-118,41,3.5546
-118,42,3.5123
-118,43,3.4962
-118,44,3.5426
-118,45,3.5923
-118,46,3.6367
-118,47,3.6743
-118,48,3.6351
-118,49,3.5738
-117,38,3.5463
-117,39,3.588
-117,40,3.6008
-117,41,3.5901
-117,42,3.5621
-117,43,3.5194
-117,44,3.5352
-117,45,3.5749
-117,46,3.6334
-117,47,3.6621
-117,48,3.6308
-117,49,3.5719
-116,38,3.5522
-116,39,3.6111
-116,40,3.622
-116,41,3.5964
-116,42,3.5471
-116,43,3.5224
-116,44,3.5148
-116,45,3.5299
-116,46,3.6155
-116,47,3.6474
-116,48,3.6009
-116,49,3.5717
-115,38,3.5775
-115,39,3.6141
-115,40,3.6272
-115,41,3.6062
-115,42,3.5597
-115,43,3.5005
-115,44,3.5134
-115,45,3.5275
-115,46,3.5759
-115,47,3.6246
-115,48,3.5961
-115,49,3.5576
-114,38,3.5287
-114,39,3.5901
-114,40,3.6279
-114,41,3.6099
-114,42,3.5606
-114,43,3.4811
-114,44,3.4789
-114,45,3.5313
-114,46,3.5854
-114,47,3.6043
-114,48,3.5804
-114,49,3.5417
-113,38,3.4786
-113,39,3.5338
-113,40,3.5799
-113,41,3.5925
-113,42,3.5318
-113,43,3.4716
-113,44,3.4683
-113,45,3.5158
-113,46,3.5796
-113,47,3.5869
-113,48,3.565
-113,49,3.5655
-112,38,3.457
-112,39,3.4985
-112,40,3.5293
-112,41,3.5386
-112,42,3.5037
-112,43,3.4399
-112,44,3.4559
-112,45,3.495
-112,46,3.5419
-112,47,3.559
-112,48,3.5724
-112,49,3.5783
-111,38,3.4841
-111,39,3.4936
-111,40,3.4852
-111,41,3.505
-111,42,3.4756
-111,43,3.4204
-111,44,3.4361
-111,45,3.4918
-111,46,3.5272
-111,47,3.5437
-111,48,3.5712
-111,49,3.5843
-110,38,3.4826
-110,39,3.4904
-110,40,3.4828
-110,41,3.4606
-110,42,3.4436
-110,43,3.4144
-110,44,3.4328
-110,45,3.5106
-110,46,3.5357
-110,47,3.5352
-110,48,3.5597
-110,49,3.5773
-109,38,3.4641
-109,39,3.4617
-109,40,3.4271
-109,41,3.4662
-109,42,3.4515
-109,43,3.443
-109,44,3.4764
-109,45,3.532
-109,46,3.549
-109,47,3.5454
-109,48,3.557
-109,49,3.5719
-108,38,3.4194
-108,39,3.3881
-108,40,3.3894
-108,41,3.4244
-108,42,3.4752
-108,43,3.4856
-108,44,3.5304
-108,45,3.5678
-108,46,3.5729
-108,47,3.5641
-108,48,3.5622
-108,49,3.5636
-107,38,3.3601
-107,39,3.3213
-107,40,3.3338
-107,41,3.3993
-107,42,3.48
-107,43,3.5225
-107,44,3.5857
-107,45,3.5954
-107,46,3.594
-107,47,3.5729
-107,48,3.576
-107,49,3.5682
-106,38,3.3289
-106,39,3.3323
-106,40,3.356
-106,41,3.3965
-106,42,3.4661
-106,43,3.5219
-106,44,3.5663
-106,45,3.6019
-106,46,3.5983
-106,47,3.581
-106,48,3.5757
-106,49,3.569
