46.250000 -106.750000 3.556657
46.500000 -106.750000 3.547910
46.750000 -106.750000 3.536879
47.000000 -106.750000 3.534205
47.250000 -106.750000 3.531856
47.500000 -106.750000 3.532898
47.750000 -106.750000 3.538825
48.000000 -106.750000 3.537877
48.250000 -106.750000 3.529200
48.500000 -106.750000 3.528345
48.750000 -106.750000 3.521522
33.250000 -106.500000 3.412749
33.500000 -106.500000 3.427312
33.750000 -106.500000 3.438677
34.000000 -106.500000 3.442534
34.250000 -106.500000 3.437366
34.500000 -106.500000 3.424817
34.750000 -106.500000 3.408049
35.000000 -106.500000 3.385599
35.250000 -106.500000 3.373806
35.500000 -106.500000 3.360153
35.750000 -106.500000 3.360507
36.000000 -106.500000 3.352661
36.250000 -106.500000 3.353892
36.500000 -106.500000 3.344930
36.750000 -106.500000 3.345115
37.000000 -106.500000 3.342852
37.250000 -106.500000 3.326566
37.500000 -106.500000 3.307930
37.750000 -106.500000 3.284897
38.000000 -106.500000 3.281782
38.250000 -106.500000 3.277133
38.500000 -106.500000 3.262916
38.750000 -106.500000 3.264486
39.000000 -106.500000 3.285528
39.250000 -106.500000 3.287107
39.500000 -106.500000 3.294073
39.750000 -106.500000 3.308608
40.000000 -106.500000 3.335059
40.250000 -106.500000 3.339697
40.500000 -106.500000 3.362067
40.750000 -106.500000 3.384796
41.000000 -106.500000 3.402938
41.250000 -106.500000 3.426253
41.500000 -106.500000 3.438207
41.750000 -106.500000 3.445446
42.000000 -106.500000 3.453722
42.250000 -106.500000 3.461675
42.500000 -106.500000 3.479723
42.750000 -106.500000 3.475765
43.000000 -106.500000 3.485700
43.250000 -106.500000 3.496089
43.500000 -106.500000 3.498356
43.750000 -106.500000 3.505547
44.000000 -106.500000 3.514557
44.250000 -106.500000 3.529237
44.500000 -106.500000 3.535034
44.750000 -106.500000 3.533163
45.000000 -106.500000 3.536756
45.250000 -106.500000 3.541347
45.500000 -106.500000 3.548616
45.750000 -106.500000 3.561068
46.000000 -106.500000 3.564439
46.250000 -106.500000 3.557809
46.500000 -106.500000 3.547408
46.750000 -106.500000 3.532839
47.000000 -106.500000 3.533998
47.250000 -106.500000 3.531606
47.500000 -106.500000 3.529881
47.750000 -106.500000 3.536170
48.000000 -106.500000 3.536440
48.250000 -106.500000 3.530131
48.500000 -106.500000 3.529008
48.750000 -106.500000 3.521714
33.250000 -106.250000 3.417837
33.500000 -106.250000 3.436608
33.750000 -106.250000 3.450876
34.000000 -106.250000 3.457082
34.250000 -106.250000 3.456692
34.500000 -106.250000 3.448957
34.750000 -106.250000 3.430164
35.000000 -106.250000 3.412121
35.250000 -106.250000 3.387760
35.500000 -106.250000 3.374688
35.750000 -106.250000 3.361294
36.000000 -106.250000 3.351631
36.250000 -106.250000 3.349323
36.500000 -106.250000 3.343754
36.750000 -106.250000 3.345051
37.000000 -106.250000 3.342953
37.250000 -106.250000 3.324728
37.500000 -106.250000 3.315952
37.750000 -106.250000 3.299251
38.000000 -106.250000 3.283066
38.250000 -106.250000 3.287485
38.500000 -106.250000 3.269647
38.750000 -106.250000 3.273004
39.000000 -106.250000 3.282395
39.250000 -106.250000 3.294428
39.500000 -106.250000 3.308138
39.750000 -106.250000 3.315056
40.000000 -106.250000 3.339343
40.250000 -106.250000 3.355144
40.500000 -106.250000 3.371933
40.750000 -106.250000 3.392900
41.000000 -106.250000 3.413180
41.250000 -106.250000 3.436358
41.500000 -106.250000 3.446022
41.750000 -106.250000 3.454843
42.000000 -106.250000 3.459091
42.250000 -106.250000 3.473030
42.500000 -106.250000 3.475356
42.750000 -106.250000 3.476786
43.000000 -106.250000 3.476354
43.250000 -106.250000 3.477004
43.500000 -106.250000 3.484075
43.750000 -106.250000 3.490575
44.000000 -106.250000 3.498136
44.250000 -106.250000 3.506057
44.500000 -106.250000 3.517449
44.750000 -106.250000 3.523626
45.000000 -106.250000 3.534251
45.250000 -106.250000 3.542682
45.500000 -106.250000 3.550888
45.750000 -106.250000 3.561436
46.000000 -106.250000 3.561309
46.250000 -106.250000 3.554917
46.500000 -106.250000 3.549125
46.750000 -106.250000 3.545474
47.000000 -106.250000 3.536318
47.250000 -106.250000 3.531238
47.500000 -106.250000 3.529711
47.750000 -106.250000 3.533383
48.000000 -106.250000 3.529898
48.250000 -106.250000 3.527147
48.750000 -106.250000 3.525454
33.250000 -106.000000 3.426539
33.500000 -106.000000 3.445329
33.750000 -106.000000 3.460292
34.000000 -106.000000 3.471497
34.250000 -106.000000 3.474770
34.500000 -106.000000 3.466173
34.750000 -106.000000 3.450332
35.000000 -106.000000 3.430871
35.250000 -106.000000 3.405804
35.500000 -106.000000 3.384938
35.750000 -106.000000 3.370597
36.000000 -106.000000 3.356774
36.250000 -106.000000 3.342641
36.500000 -106.000000 3.339755
36.750000 -106.000000 3.345507
37.000000 -106.000000 3.340529
37.250000 -106.000000 3.329264
37.500000 -106.000000 3.328174
37.750000 -106.000000 3.309672
38.000000 -106.000000 3.299419
38.250000 -106.000000 3.294835
38.500000 -106.000000 3.293336
38.750000 -106.000000 3.297013
39.000000 -106.000000 3.302804
39.250000 -106.000000 3.308373
39.500000 -106.000000 3.317222
39.750000 -106.000000 3.332030
40.000000 -106.000000 3.352994
40.250000 -106.000000 3.368759
40.500000 -106.000000 3.380164
40.750000 -106.000000 3.404830
41.000000 -106.000000 3.426380
41.250000 -106.000000 3.446626
41.500000 -106.000000 3.461188
41.750000 -106.000000 3.470341
42.000000 -106.000000 3.478721
42.250000 -106.000000 3.486817
42.500000 -106.000000 3.470644
42.750000 -106.000000 3.476241
43.000000 -106.000000 3.468721
43.250000 -106.000000 3.468343
43.500000 -106.000000 3.471160
43.750000 -106.000000 3.480319
44.000000 -106.000000 3.487718
44.250000 -106.000000 3.495836
44.500000 -106.000000 3.506767
44.750000 -106.000000 3.516890
45.000000 -106.000000 3.532097
45.250000 -106.000000 3.545019
45.500000 -106.000000 3.550217
45.750000 -106.000000 3.554211
46.000000 -106.000000 3.557255
46.250000 -106.000000 3.548871
46.500000 -106.000000 3.541486
46.750000 -106.000000 3.532295
47.000000 -106.000000 3.526018
47.250000 -106.000000 3.522205
47.500000 -106.000000 3.524376
47.750000 -106.000000 3.528942
48.000000 -106.000000 3.526326
48.250000 -106.000000 3.524116
48.500000 -106.000000 3.520787
48.750000 -106.000000 3.526574
33.000000 -105.750000 3.421010
33.250000 -105.750000 3.440196
33.500000 -105.750000 3.453369
33.750000 -105.750000 3.468311
34.000000 -105.750000 3.480968
34.250000 -105.750000 3.485195
34.500000 -105.750000 3.477806
34.750000 -105.750000 3.462713
35.000000 -105.750000 3.441372
35.250000 -105.750000 3.423033
35.500000 -105.750000 3.400911
35.750000 -105.750000 3.383641
36.000000 -105.750000 3.365725
36.250000 -105.750000 3.351155
36.500000 -105.750000 3.345328
36.750000 -105.750000 3.343889
37.000000 -105.750000 3.345682
37.250000 -105.750000 3.338326
37.500000 -105.750000 3.336880
37.750000 -105.750000 3.322945
38.000000 -105.750000 3.310859
38.250000 -105.750000 3.304475
38.500000 -105.750000 3.306708
38.750000 -105.750000 3.309061
39.000000 -105.750000 3.314102
39.250000 -105.750000 3.322743
39.500000 -105.750000 3.327637
39.750000 -105.750000 3.341333
40.000000 -105.750000 3.359689
40.250000 -105.750000 3.375930
40.500000 -105.750000 3.387214
40.750000 -105.750000 3.409562
41.000000 -105.750000 3.430667
41.250000 -105.750000 3.457881
41.500000 -105.750000 3.468777
41.750000 -105.750000 3.477917
42.000000 -105.750000 3.490748
42.250000 -105.750000 3.489475
42.500000 -105.750000 3.478371
42.750000 -105.750000 3.472864
43.000000 -105.750000 3.463074
43.250000 -105.750000 3.460983
43.500000 -105.750000 3.466898
43.750000 -105.750000 3.474069
44.000000 -105.750000 3.481865
44.250000 -105.750000 3.486817
44.500000 -105.750000 3.495461
44.750000 -105.750000 3.510527
45.000000 -105.750000 3.530125
45.250000 -105.750000 3.548815
45.500000 -105.750000 3.550896
45.750000 -105.750000 3.554576
46.000000 -105.750000 3.547404
46.250000 -105.750000 3.552183
46.500000 -105.750000 3.535802
46.750000 -105.750000 3.529084
47.000000 -105.750000 3.518619
47.250000 -105.750000 3.519141
47.500000 -105.750000 3.518236
47.750000 -105.750000 3.521534
48.000000 -105.750000 3.521008
48.250000 -105.750000 3.515955
48.500000 -105.750000 3.518031
48.750000 -105.750000 3.520476
33.000000 -105.500000 3.441669
33.250000 -105.500000 3.450171
33.500000 -105.500000 3.462155
33.750000 -105.500000 3.473604
34.000000 -105.500000 3.479705
34.250000 -105.500000 3.488029
34.500000 -105.500000 3.483773
34.750000 -105.500000 3.469083
35.000000 -105.500000 3.453562
35.250000 -105.500000 3.435358
35.500000 -105.500000 3.418909
35.750000 -105.500000 3.400815
36.000000 -105.500000 3.378045
36.250000 -105.500000 3.366628
36.500000 -105.500000 3.354249
36.750000 -105.500000 3.353384
37.000000 -105.500000 3.347664
37.250000 -105.500000 3.351349
37.500000 -105.500000 3.351957
37.750000 -105.500000 3.330995
38.000000 -105.500000 3.324188
38.250000 -105.500000 3.319621
38.500000 -105.500000 3.323517
38.750000 -105.500000 3.323561
39.000000 -105.500000 3.328936
39.250000 -105.500000 3.335025
39.500000 -105.500000 3.338596
39.750000 -105.500000 3.345929
40.000000 -105.500000 3.363737
40.250000 -105.500000 3.382412
40.500000 -105.500000 3.391761
40.750000 -105.500000 3.415565
41.000000 -105.500000 3.429473
41.250000 -105.500000 3.451895
41.500000 -105.500000 3.472186
41.750000 -105.500000 3.482393
42.000000 -105.500000 3.491031
42.250000 -105.500000 3.482463
42.500000 -105.500000 3.473658
42.750000 -105.500000 3.462022
43.000000 -105.500000 3.458707
43.250000 -105.500000 3.457274
43.500000 -105.500000 3.457036
43.750000 -105.500000 3.469904
44.000000 -105.500000 3.481402
44.250000 -105.500000 3.484242
44.500000 -105.500000 3.496252
44.750000 -105.500000 3.510025
45.000000 -105.500000 3.533621
45.250000 -105.500000 3.552879
45.500000 -105.500000 3.561781
45.750000 -105.500000 3.560167
46.000000 -105.500000 3.556260
46.250000 -105.500000 3.548924
46.500000 -105.500000 3.535984
46.750000 -105.500000 3.524825
47.000000 -105.500000 3.513971
47.250000 -105.500000 3.511640
47.500000 -105.500000 3.513675
47.750000 -105.500000 3.518803
48.000000 -105.500000 3.513526
48.250000 -105.500000 3.512865
48.500000 -105.500000 3.509481
48.750000 -105.500000 3.513473
33.000000 -105.250000 3.458386
33.250000 -105.250000 3.460676
33.500000 -105.250000 3.461670
33.750000 -105.250000 3.467934
34.000000 -105.250000 3.477909
34.250000 -105.250000 3.486252
34.500000 -105.250000 3.483310
34.750000 -105.250000 3.472909
35.000000 -105.250000 3.462314
35.250000 -105.250000 3.447279
35.500000 -105.250000 3.436656
35.750000 -105.250000 3.412977
36.000000 -105.250000 3.390451
36.250000 -105.250000 3.381058
36.500000 -105.250000 3.366362
36.750000 -105.250000 3.362277
37.000000 -105.250000 3.369515
37.250000 -105.250000 3.369010
37.500000 -105.250000 3.365717
37.750000 -105.250000 3.351863
38.000000 -105.250000 3.348455
38.250000 -105.250000 3.342162
38.500000 -105.250000 3.337620
38.750000 -105.250000 3.339268
39.000000 -105.250000 3.343310
39.250000 -105.250000 3.348133
39.500000 -105.250000 3.350520
39.750000 -105.250000 3.365727
40.000000 -105.250000 3.380136
40.250000 -105.250000 3.392394
40.500000 -105.250000 3.404551
40.750000 -105.250000 3.423449
41.000000 -105.250000 3.432919
41.250000 -105.250000 3.453208
41.500000 -105.250000 3.468581
41.750000 -105.250000 3.487240
42.000000 -105.250000 3.495931
42.250000 -105.250000 3.482113
42.500000 -105.250000 3.468979
42.750000 -105.250000 3.462563
43.000000 -105.250000 3.454244
43.250000 -105.250000 3.450265
43.500000 -105.250000 3.453364
43.750000 -105.250000 3.470568
44.000000 -105.250000 3.484530
44.250000 -105.250000 3.487932
44.500000 -105.250000 3.500542
44.750000 -105.250000 3.510703
45.000000 -105.250000 3.534203
45.250000 -105.250000 3.551030
45.500000 -105.250000 3.563966
45.750000 -105.250000 3.559484
46.000000 -105.250000 3.544538
46.250000 -105.250000 3.538404
46.500000 -105.250000 3.532352
46.750000 -105.250000 3.519920
47.000000 -105.250000 3.512276
47.250000 -105.250000 3.508503
47.500000 -105.250000 3.509396
47.750000 -105.250000 3.510222
48.000000 -105.250000 3.508968
48.250000 -105.250000 3.509638
48.500000 -105.250000 3.510805
48.750000 -105.250000 3.504839
33.000000 -105.000000 3.468190
33.250000 -105.000000 3.467312
33.500000 -105.000000 3.460484
33.750000 -105.000000 3.464650
34.000000 -105.000000 3.475167
34.250000 -105.000000 3.481821
34.500000 -105.000000 3.483278
34.750000 -105.000000 3.473550
35.000000 -105.000000 3.466941
35.250000 -105.000000 3.461705
35.500000 -105.000000 3.448550
35.750000 -105.000000 3.430165
36.000000 -105.000000 3.408001
36.250000 -105.000000 3.397766
36.500000 -105.000000 3.381900
36.750000 -105.000000 3.384019
37.000000 -105.000000 3.379516
37.250000 -105.000000 3.386497
37.500000 -105.000000 3.385050
37.750000 -105.000000 3.378313
38.000000 -105.000000 3.376957
38.250000 -105.000000 3.362322
38.500000 -105.000000 3.358869
38.750000 -105.000000 3.356775
39.000000 -105.000000 3.356270
39.250000 -105.000000 3.359492
39.500000 -105.000000 3.369719
39.750000 -105.000000 3.375172
40.000000 -105.000000 3.382136
40.250000 -105.000000 3.389438
40.500000 -105.000000 3.413638
40.750000 -105.000000 3.438058
41.000000 -105.000000 3.442866
41.250000 -105.000000 3.457416
41.500000 -105.000000 3.462840
41.750000 -105.000000 3.480532
42.000000 -105.000000 3.493728
42.250000 -105.000000 3.485585
42.500000 -105.000000 3.474696
42.750000 -105.000000 3.466892
43.000000 -105.000000 3.453900
43.250000 -105.000000 3.450992
43.500000 -105.000000 3.451532
43.750000 -105.000000 3.476318
44.000000 -105.000000 3.487722
44.250000 -105.000000 3.501824
44.500000 -105.000000 3.505531
44.750000 -105.000000 3.519447
45.000000 -105.000000 3.537115
45.250000 -105.000000 3.558480
45.500000 -105.000000 3.570200
45.750000 -105.000000 3.563604
46.000000 -105.000000 3.551152
46.250000 -105.000000 3.534777
46.500000 -105.000000 3.523292
46.750000 -105.000000 3.522482
47.000000 -105.000000 3.510959
47.250000 -105.000000 3.509091
47.500000 -105.000000 3.505013
47.750000 -105.000000 3.518088
48.000000 -105.000000 3.501450
48.250000 -105.000000 3.503151
48.500000 -105.000000 3.503225
48.750000 -105.000000 3.500718
33.000000 -104.750000 3.484187
33.250000 -104.750000 3.471633
33.500000 -104.750000 3.464376
33.750000 -104.750000 3.468505
34.000000 -104.750000 3.472442
34.250000 -104.750000 3.477980
34.500000 -104.750000 3.477869
34.750000 -104.750000 3.472976
35.000000 -104.750000 3.471981
35.250000 -104.750000 3.472522
35.500000 -104.750000 3.461094
35.750000 -104.750000 3.444776
36.000000 -104.750000 3.424234
36.250000 -104.750000 3.409888
36.500000 -104.750000 3.398377
36.750000 -104.750000 3.393769
37.000000 -104.750000 3.394252
37.250000 -104.750000 3.400098
37.500000 -104.750000 3.403549
37.750000 -104.750000 3.399887
38.000000 -104.750000 3.394446
38.250000 -104.750000 3.386207
38.500000 -104.750000 3.368576
38.750000 -104.750000 3.370816
39.000000 -104.750000 3.372147
39.250000 -104.750000 3.374792
39.500000 -104.750000 3.380760
39.750000 -104.750000 3.377760
40.000000 -104.750000 3.388554
40.250000 -104.750000 3.394264
40.500000 -104.750000 3.413247
40.750000 -104.750000 3.430740
41.000000 -104.750000 3.432621
41.250000 -104.750000 3.449582
41.500000 -104.750000 3.458637
41.750000 -104.750000 3.464936
42.000000 -104.750000 3.482845
42.250000 -104.750000 3.476962
42.500000 -104.750000 3.469628
42.750000 -104.750000 3.450309
43.000000 -104.750000 3.465243
43.250000 -104.750000 3.465406
43.500000 -104.750000 3.468177
43.750000 -104.750000 3.480412
44.000000 -104.750000 3.497343
44.250000 -104.750000 3.510992
44.500000 -104.750000 3.519928
44.750000 -104.750000 3.529257
45.000000 -104.750000 3.549745
45.250000 -104.750000 3.566208
45.500000 -104.750000 3.562921
45.750000 -104.750000 3.566221
46.000000 -104.750000 3.541463
46.250000 -104.750000 3.528041
46.500000 -104.750000 3.524731
46.750000 -104.750000 3.519239
47.000000 -104.750000 3.504577
47.250000 -104.750000 3.509058
47.500000 -104.750000 3.495886
47.750000 -104.750000 3.495296
48.000000 -104.750000 3.498059
48.250000 -104.750000 3.498623
48.500000 -104.750000 3.507677
48.750000 -104.750000 3.496358
33.000000 -104.500000 3.487350
33.250000 -104.500000 3.476949
33.500000 -104.500000 3.473734
33.750000 -104.500000 3.471353
34.000000 -104.500000 3.472087
34.250000 -104.500000 3.472985
34.500000 -104.500000 3.474810
34.750000 -104.500000 3.475995
35.000000 -104.500000 3.477145
35.250000 -104.500000 3.475154
35.500000 -104.500000 3.466820
35.750000 -104.500000 3.453189
36.000000 -104.500000 3.439245
36.250000 -104.500000 3.429911
36.500000 -104.500000 3.415512
36.750000 -104.500000 3.409313
37.000000 -104.500000 3.414021
37.250000 -104.500000 3.415790
37.500000 -104.500000 3.420246
37.750000 -104.500000 3.417645
38.000000 -104.500000 3.416584
38.250000 -104.500000 3.405493
38.500000 -104.500000 3.393841
38.750000 -104.500000 3.391721
39.000000 -104.500000 3.389375
39.250000 -104.500000 3.388528
39.500000 -104.500000 3.393676
39.750000 -104.500000 3.390108
40.000000 -104.500000 3.400789
40.250000 -104.500000 3.401358
40.500000 -104.500000 3.417829
40.750000 -104.500000 3.426279
41.000000 -104.500000 3.434143
41.250000 -104.500000 3.441112
41.500000 -104.500000 3.457430
41.750000 -104.500000 3.461991
42.000000 -104.500000 3.473543
42.250000 -104.500000 3.475754
42.500000 -104.500000 3.469814
42.750000 -104.500000 3.469287
43.000000 -104.500000 3.460293
43.250000 -104.500000 3.469722
43.500000 -104.500000 3.463766
43.750000 -104.500000 3.485205
44.000000 -104.500000 3.487977
44.250000 -104.500000 3.522045
44.500000 -104.500000 3.532586
44.750000 -104.500000 3.540097
45.000000 -104.500000 3.559139
45.250000 -104.500000 3.571242
45.500000 -104.500000 3.575298
45.750000 -104.500000 3.564446
46.000000 -104.500000 3.555284
46.250000 -104.500000 3.544477
46.500000 -104.500000 3.530140
46.750000 -104.500000 3.512830
47.000000 -104.500000 3.507895
47.250000 -104.500000 3.505242
47.500000 -104.500000 3.500840
47.750000 -104.500000 3.500007
48.500000 -104.500000 3.503962
48.750000 -104.500000 3.497977
33.000000 -104.250000 3.489644
33.250000 -104.250000 3.478998
33.500000 -104.250000 3.478607
33.750000 -104.250000 3.475890
34.000000 -104.250000 3.471914
34.250000 -104.250000 3.473859
34.500000 -104.250000 3.475063
34.750000 -104.250000 3.477945
35.000000 -104.250000 3.483268
35.250000 -104.250000 3.483324
35.500000 -104.250000 3.473560
35.750000 -104.250000 3.465222
36.000000 -104.250000 3.455003
36.250000 -104.250000 3.445315
36.500000 -104.250000 3.430775
36.750000 -104.250000 3.425115
37.000000 -104.250000 3.432153
37.250000 -104.250000 3.433040
37.500000 -104.250000 3.443380
37.750000 -104.250000 3.445284
38.000000 -104.250000 3.444688
38.250000 -104.250000 3.431523
38.500000 -104.250000 3.421438
38.750000 -104.250000 3.414414
39.000000 -104.250000 3.409340
39.250000 -104.250000 3.406086
39.500000 -104.250000 3.410533
39.750000 -104.250000 3.403634
40.000000 -104.250000 3.416517
40.250000 -104.250000 3.414624
40.500000 -104.250000 3.423942
40.750000 -104.250000 3.434586
41.000000 -104.250000 3.437531
41.250000 -104.250000 3.451992
41.500000 -104.250000 3.460176
41.750000 -104.250000 3.462164
42.000000 -104.250000 3.478854
42.250000 -104.250000 3.476025
42.500000 -104.250000 3.473587
42.750000 -104.250000 3.471752
43.000000 -104.250000 3.460697
43.250000 -104.250000 3.474115
43.500000 -104.250000 3.468148
43.750000 -104.250000 3.486550
44.000000 -104.250000 3.507243
44.250000 -104.250000 3.522718
44.500000 -104.250000 3.537871
44.750000 -104.250000 3.549715
45.000000 -104.250000 3.547035
45.250000 -104.250000 3.561371
45.500000 -104.250000 3.566334
45.750000 -104.250000 3.548869
46.000000 -104.250000 3.544022
46.250000 -104.250000 3.529789
46.500000 -104.250000 3.516793
46.750000 -104.250000 3.502602
47.000000 -104.250000 3.498352
47.250000 -104.250000 3.499343
47.500000 -104.250000 3.504644
48.250000 -104.250000 3.500070
48.500000 -104.250000 3.482779
48.750000 -104.250000 3.496586
33.000000 -104.000000 3.481566
33.250000 -104.000000 3.478827
33.500000 -104.000000 3.481443
33.750000 -104.000000 3.476979
34.000000 -104.000000 3.473801
34.250000 -104.000000 3.475802
34.500000 -104.000000 3.477698
34.750000 -104.000000 3.481226
35.000000 -104.000000 3.488414
35.250000 -104.000000 3.484087
35.500000 -104.000000 3.484667
35.750000 -104.000000 3.475871
36.000000 -104.000000 3.465499
36.250000 -104.000000 3.456175
36.500000 -104.000000 3.449897
36.750000 -104.000000 3.436702
37.000000 -104.000000 3.442593
37.250000 -104.000000 3.453336
37.500000 -104.000000 3.459782
37.750000 -104.000000 3.470650
38.000000 -104.000000 3.465331
38.250000 -104.000000 3.454202
38.500000 -104.000000 3.436191
38.750000 -104.000000 3.434673
39.000000 -104.000000 3.430903
39.250000 -104.000000 3.424881
39.500000 -104.000000 3.420804
39.750000 -104.000000 3.422270
40.000000 -104.000000 3.427426
40.250000 -104.000000 3.425932
40.500000 -104.000000 3.430671
40.750000 -104.000000 3.432165
41.000000 -104.000000 3.433276
41.250000 -104.000000 3.451052
41.500000 -104.000000 3.456684
41.750000 -104.000000 3.475114
42.000000 -104.000000 3.488498
42.250000 -104.000000 3.490851
42.500000 -104.000000 3.480718
42.750000 -104.000000 3.469564
43.000000 -104.000000 3.468947
43.250000 -104.000000 3.484328
43.500000 -104.000000 3.475375
43.750000 -104.000000 3.473399
44.000000 -104.000000 3.512072
44.250000 -104.000000 3.528509
44.500000 -104.000000 3.544685
44.750000 -104.000000 3.553478
45.000000 -104.000000 3.557290
45.250000 -104.000000 3.560626
45.500000 -104.000000 3.566122
45.750000 -104.000000 3.549063
46.000000 -104.000000 3.540267
46.250000 -104.000000 3.535354
46.500000 -104.000000 3.520020
46.750000 -104.000000 3.502930
47.000000 -104.000000 3.489986
47.250000 -104.000000 3.497286
47.500000 -104.000000 3.499064
48.000000 -104.000000 3.487361
48.500000 -104.000000 3.497267
48.750000 -104.000000 3.494044
33.000000 -103.750000 3.479367
33.250000 -103.750000 3.478678
33.500000 -103.750000 3.483193
33.750000 -103.750000 3.478762
34.000000 -103.750000 3.476403
34.250000 -103.750000 3.476562
34.500000 -103.750000 3.478572
34.750000 -103.750000 3.484089
35.000000 -103.750000 3.490212
35.250000 -103.750000 3.486246
35.500000 -103.750000 3.485701
35.750000 -103.750000 3.483250
36.000000 -103.750000 3.472506
36.250000 -103.750000 3.464967
36.500000 -103.750000 3.455204
36.750000 -103.750000 3.454840
37.000000 -103.750000 3.461573
37.250000 -103.750000 3.470108
37.500000 -103.750000 3.479782
37.750000 -103.750000 3.485162
38.000000 -103.750000 3.486307
38.250000 -103.750000 3.473046
38.500000 -103.750000 3.459480
38.750000 -103.750000 3.453106
39.000000 -103.750000 3.447041
39.250000 -103.750000 3.443719
39.500000 -103.750000 3.437791
39.750000 -103.750000 3.434925
40.000000 -103.750000 3.435962
40.250000 -103.750000 3.438697
40.500000 -103.750000 3.434262
40.750000 -103.750000 3.440100
41.000000 -103.750000 3.442343
41.250000 -103.750000 3.452566
41.500000 -103.750000 3.447327
41.750000 -103.750000 3.469791
42.000000 -103.750000 3.488149
42.250000 -103.750000 3.485255
42.500000 -103.750000 3.480832
42.750000 -103.750000 3.469418
43.000000 -103.750000 3.472742
43.250000 -103.750000 3.482680
43.500000 -103.750000 3.472308
43.750000 -103.750000 3.489433
44.000000 -103.750000 3.512042
44.250000 -103.750000 3.516862
44.500000 -103.750000 3.537945
44.750000 -103.750000 3.542592
45.000000 -103.750000 3.567206
45.250000 -103.750000 3.555611
45.500000 -103.750000 3.554574
45.750000 -103.750000 3.556571
46.000000 -103.750000 3.540976
46.250000 -103.750000 3.539160
46.500000 -103.750000 3.516249
46.750000 -103.750000 3.493119
47.000000 -103.750000 3.489245
47.250000 -103.750000 3.502686
47.500000 -103.750000 3.491954
47.750000 -103.750000 3.516422
48.000000 -103.750000 3.487573
48.250000 -103.750000 3.499460
48.500000 -103.750000 3.486066
48.750000 -103.750000 3.491958
33.000000 -103.500000 3.479098
33.250000 -103.500000 3.480298
33.500000 -103.500000 3.483804
33.750000 -103.500000 3.482865
34.000000 -103.500000 3.480359
34.250000 -103.500000 3.476817
34.500000 -103.500000 3.480714
34.750000 -103.500000 3.486086
35.000000 -103.500000 3.487903
35.250000 -103.500000 3.491697
35.500000 -103.500000 3.485771
35.750000 -103.500000 3.481675
36.000000 -103.500000 3.472053
36.250000 -103.500000 3.477397
36.500000 -103.500000 3.472371
36.750000 -103.500000 3.473802
37.000000 -103.500000 3.478928
37.250000 -103.500000 3.489161
37.500000 -103.500000 3.498517
37.750000 -103.500000 3.501959
38.000000 -103.500000 3.503662
38.250000 -103.500000 3.492002
38.500000 -103.500000 3.480323
38.750000 -103.500000 3.469328
39.000000 -103.500000 3.456507
39.250000 -103.500000 3.452683
39.500000 -103.500000 3.459223
39.750000 -103.500000 3.449503
40.000000 -103.500000 3.450838
40.250000 -103.500000 3.447641
40.500000 -103.500000 3.441779
40.750000 -103.500000 3.448767
41.000000 -103.500000 3.447911
41.250000 -103.500000 3.457521
41.500000 -103.500000 3.463030
41.750000 -103.500000 3.464947
42.000000 -103.500000 3.481857
42.250000 -103.500000 3.488590
42.500000 -103.500000 3.484651
42.750000 -103.500000 3.483870
43.000000 -103.500000 3.476532
43.250000 -103.500000 3.487452
43.500000 -103.500000 3.495807
43.750000 -103.500000 3.498073
44.000000 -103.500000 3.509378
44.250000 -103.500000 3.520700
44.500000 -103.500000 3.530292
44.750000 -103.500000 3.532258
45.000000 -103.500000 3.550188
45.250000 -103.500000 3.542356
45.500000 -103.500000 3.551021
45.750000 -103.500000 3.552591
46.000000 -103.500000 3.551155
46.250000 -103.500000 3.548269
46.500000 -103.500000 3.534276
46.750000 -103.500000 3.528432
47.000000 -103.500000 3.521754
47.250000 -103.500000 3.514278
47.500000 -103.500000 3.513657
47.750000 -103.500000 3.521951
48.000000 -103.500000 3.491265
48.250000 -103.500000 3.496643
48.500000 -103.500000 NaN
48.750000 -103.500000 3.491267
33.000000 -103.250000 3.476230
33.250000 -103.250000 3.481288
33.500000 -103.250000 3.486109
33.750000 -103.250000 3.483869
34.000000 -103.250000 3.478605
34.250000 -103.250000 3.475736
34.500000 -103.250000 3.480077
34.750000 -103.250000 3.486873
35.000000 -103.250000 3.493561
35.250000 -103.250000 3.485544
35.500000 -103.250000 3.483290
35.750000 -103.250000 3.480568
36.000000 -103.250000 3.478874
36.250000 -103.250000 3.476802
36.500000 -103.250000 3.479524
36.750000 -103.250000 3.484790
37.000000 -103.250000 3.492980
37.250000 -103.250000 3.501553
37.500000 -103.250000 3.508839
37.750000 -103.250000 3.513266
38.000000 -103.250000 3.517536
38.250000 -103.250000 3.510665
38.500000 -103.250000 3.495892
38.750000 -103.250000 3.485149
39.000000 -103.250000 3.469816
39.250000 -103.250000 3.468298
39.500000 -103.250000 3.473015
39.750000 -103.250000 3.462153
40.000000 -103.250000 3.458708
40.250000 -103.250000 3.463858
40.500000 -103.250000 3.460469
40.750000 -103.250000 3.459607
41.000000 -103.250000 3.459556
41.250000 -103.250000 3.464679
41.500000 -103.250000 3.473920
41.750000 -103.250000 3.479910
42.000000 -103.250000 3.492046
42.250000 -103.250000 3.488552
42.500000 -103.250000 3.494446
42.750000 -103.250000 3.493632
43.000000 -103.250000 3.488874
43.250000 -103.250000 3.499455
43.500000 -103.250000 3.499233
43.750000 -103.250000 3.503089
44.000000 -103.250000 3.510902
44.250000 -103.250000 3.520969
44.500000 -103.250000 3.526459
44.750000 -103.250000 3.540364
45.000000 -103.250000 3.545961
45.250000 -103.250000 3.543619
45.500000 -103.250000 3.548329
45.750000 -103.250000 3.539019
46.000000 -103.250000 3.549795
46.250000 -103.250000 3.534012
46.500000 -103.250000 3.523885
46.750000 -103.250000 3.518120
47.000000 -103.250000 3.508037
47.250000 -103.250000 3.498969
47.500000 -103.250000 3.521208
47.750000 -103.250000 3.533231
48.000000 -103.250000 3.522409
48.250000 -103.250000 3.516400
48.500000 -103.250000 3.510201
48.750000 -103.250000 3.512253
33.000000 -103.000000 3.471836
33.250000 -103.000000 3.480993
33.500000 -103.000000 3.486232
33.750000 -103.000000 3.484433
34.000000 -103.000000 3.479228
34.250000 -103.000000 3.475692
34.500000 -103.000000 3.477098
34.750000 -103.000000 3.484596
35.000000 -103.000000 3.482294
35.250000 -103.000000 3.481934
35.500000 -103.000000 3.480773
35.750000 -103.000000 3.477741
36.000000 -103.000000 3.479034
36.250000 -103.000000 3.481023
36.500000 -103.000000 3.485878
36.750000 -103.000000 3.491276
37.000000 -103.000000 3.499847
37.250000 -103.000000 3.507539
37.500000 -103.000000 3.515733
37.750000 -103.000000 3.518812
38.000000 -103.000000 3.523067
38.250000 -103.000000 3.524409
38.500000 -103.000000 3.507814
38.750000 -103.000000 3.490825
39.000000 -103.000000 3.496096
39.250000 -103.000000 3.482935
39.500000 -103.000000 3.479550
39.750000 -103.000000 3.478009
40.000000 -103.000000 3.474822
40.250000 -103.000000 3.473624
40.500000 -103.000000 3.474721
40.750000 -103.000000 3.467889
41.000000 -103.000000 3.466432
41.250000 -103.000000 3.467716
41.500000 -103.000000 3.475598
41.750000 -103.000000 3.487714
42.000000 -103.000000 3.493687
42.250000 -103.000000 3.488033
42.500000 -103.000000 3.493155
42.750000 -103.000000 3.487491
43.000000 -103.000000 3.491950
43.250000 -103.000000 3.501928
43.500000 -103.000000 3.505651
43.750000 -103.000000 3.514783
44.000000 -103.000000 3.525684
44.250000 -103.000000 3.525828
44.500000 -103.000000 3.530921
44.750000 -103.000000 3.526564
45.000000 -103.000000 3.538207
45.250000 -103.000000 3.542260
45.500000 -103.000000 3.544634
45.750000 -103.000000 3.541178
46.000000 -103.000000 3.544995
46.250000 -103.000000 3.525783
46.500000 -103.000000 3.517651
46.750000 -103.000000 3.513382
47.000000 -103.000000 3.502532
47.250000 -103.000000 3.516152
47.500000 -103.000000 3.502332
47.750000 -103.000000 3.512928
48.000000 -103.000000 3.521241
48.250000 -103.000000 3.522843
48.500000 -103.000000 3.491468
48.750000 -103.000000 3.521154
33.000000 -102.750000 3.467552
33.250000 -102.750000 3.479147
33.500000 -102.750000 3.483947
33.750000 -102.750000 3.483010
34.000000 -102.750000 3.479355
34.250000 -102.750000 3.476324
34.500000 -102.750000 3.473466
34.750000 -102.750000 3.478913
35.000000 -102.750000 3.476744
35.250000 -102.750000 3.476685
35.500000 -102.750000 3.475026
35.750000 -102.750000 3.474683
36.000000 -102.750000 3.478372
36.250000 -102.750000 3.483823
36.500000 -102.750000 3.487853
36.750000 -102.750000 3.493474
37.000000 -102.750000 3.501785
37.250000 -102.750000 3.508700
37.500000 -102.750000 3.518568
37.750000 -102.750000 3.517054
38.000000 -102.750000 3.520259
38.250000 -102.750000 3.520382
38.500000 -102.750000 3.510535
38.750000 -102.750000 3.499275
39.000000 -102.750000 3.505072
39.250000 -102.750000 3.495779
39.500000 -102.750000 3.493447
39.750000 -102.750000 3.488997
40.000000 -102.750000 3.488914
40.250000 -102.750000 3.487332
40.500000 -102.750000 3.485350
40.750000 -102.750000 3.482542
41.000000 -102.750000 3.473226
41.250000 -102.750000 3.475105
41.500000 -102.750000 3.487098
41.750000 -102.750000 3.489863
42.000000 -102.750000 3.497467
42.250000 -102.750000 3.495778
42.500000 -102.750000 3.486548
42.750000 -102.750000 3.486870
43.000000 -102.750000 3.484097
43.250000 -102.750000 3.498924
43.500000 -102.750000 3.505121
43.750000 -102.750000 3.512266
44.000000 -102.750000 3.519385
44.250000 -102.750000 3.522055
44.500000 -102.750000 3.529796
44.750000 -102.750000 3.529272
45.000000 -102.750000 3.538553
45.250000 -102.750000 3.546675
45.500000 -102.750000 3.541559
45.750000 -102.750000 3.541948
46.000000 -102.750000 3.532057
46.250000 -102.750000 3.532137
46.500000 -102.750000 3.525909
46.750000 -102.750000 3.516781
47.000000 -102.750000 3.514467
47.250000 -102.750000 3.513288
47.500000 -102.750000 3.505309
47.750000 -102.750000 3.511940
48.000000 -102.750000 3.509953
48.250000 -102.750000 3.528276
48.500000 -102.750000 3.529917
48.750000 -102.750000 3.523301
33.000000 -102.500000 3.463971
33.250000 -102.500000 3.473233
33.500000 -102.500000 3.480695
33.750000 -102.500000 3.487172
34.000000 -102.500000 3.482916
34.250000 -102.500000 3.470135
34.500000 -102.500000 3.477822
34.750000 -102.500000 3.476043
35.000000 -102.500000 3.478198
35.250000 -102.500000 3.475666
35.500000 -102.500000 3.473415
35.750000 -102.500000 3.474546
36.000000 -102.500000 3.476816
36.250000 -102.500000 3.486468
36.500000 -102.500000 3.490533
36.750000 -102.500000 3.495517
37.000000 -102.500000 3.506750
37.250000 -102.500000 3.511966
37.500000 -102.500000 3.516707
37.750000 -102.500000 3.517401
38.000000 -102.500000 3.520848
38.250000 -102.500000 3.518585
38.500000 -102.500000 3.507161
38.750000 -102.500000 3.504118
39.000000 -102.500000 3.510323
39.250000 -102.500000 3.498369
39.500000 -102.500000 3.511970
39.750000 -102.500000 3.496394
40.000000 -102.500000 3.497968
40.250000 -102.500000 3.501416
40.500000 -102.500000 3.499668
40.750000 -102.500000 3.495422
41.000000 -102.500000 3.485429
41.250000 -102.500000 3.487684
41.500000 -102.500000 3.498764
41.750000 -102.500000 3.499471
42.000000 -102.500000 3.505995
42.250000 -102.500000 3.492757
42.500000 -102.500000 3.497905
42.750000 -102.500000 3.485193
43.000000 -102.500000 3.485371
43.250000 -102.500000 3.499403
43.500000 -102.500000 3.509162
43.750000 -102.500000 3.512331
44.000000 -102.500000 3.517972
44.250000 -102.500000 3.521175
44.500000 -102.500000 3.524191
44.750000 -102.500000 3.528248
45.000000 -102.500000 3.536602
45.250000 -102.500000 3.541303
45.500000 -102.500000 3.546538
45.750000 -102.500000 3.540428
46.000000 -102.500000 3.527516
46.250000 -102.500000 3.532615
46.500000 -102.500000 3.534427
46.750000 -102.500000 3.535393
47.000000 -102.500000 3.525626
47.250000 -102.500000 3.512164
47.500000 -102.500000 3.512339
47.750000 -102.500000 3.515427
48.000000 -102.500000 3.525564
48.250000 -102.500000 3.531527
48.500000 -102.500000 3.521587
48.750000 -102.500000 3.518110
33.250000 -102.250000 3.471303
33.500000 -102.250000 3.474642
33.750000 -102.250000 3.481011
34.000000 -102.250000 3.480113
34.250000 -102.250000 3.468893
34.500000 -102.250000 3.467020
34.750000 -102.250000 3.468035
35.000000 -102.250000 3.475195
35.250000 -102.250000 3.471990
35.500000 -102.250000 3.473067
35.750000 -102.250000 3.475419
36.000000 -102.250000 3.477900
36.250000 -102.250000 3.484587
36.500000 -102.250000 3.490348
36.750000 -102.250000 3.495603
37.000000 -102.250000 3.506162
37.250000 -102.250000 3.510636
37.500000 -102.250000 3.517073
37.750000 -102.250000 3.517415
38.000000 -102.250000 3.518717
38.250000 -102.250000 3.521694
38.500000 -102.250000 3.512325
38.750000 -102.250000 3.505120
39.000000 -102.250000 3.506706
39.250000 -102.250000 3.501160
39.500000 -102.250000 3.507943
39.750000 -102.250000 3.502143
40.000000 -102.250000 3.505923
40.250000 -102.250000 3.500753
40.500000 -102.250000 3.498495
40.750000 -102.250000 3.501993
41.000000 -102.250000 3.497788
41.250000 -102.250000 3.494846
41.500000 -102.250000 3.505236
41.750000 -102.250000 3.513411
42.000000 -102.250000 3.507496
42.250000 -102.250000 3.497080
42.500000 -102.250000 3.497812
42.750000 -102.250000 3.487418
43.000000 -102.250000 3.488203
43.250000 -102.250000 3.510402
43.500000 -102.250000 3.509101
43.750000 -102.250000 3.510708
44.000000 -102.250000 3.524719
44.250000 -102.250000 3.525660
44.500000 -102.250000 3.535602
44.750000 -102.250000 3.536937
45.000000 -102.250000 3.532353
45.250000 -102.250000 3.548446
45.500000 -102.250000 3.544790
45.750000 -102.250000 3.543352
46.000000 -102.250000 3.537166
46.250000 -102.250000 3.519285
46.500000 -102.250000 3.518162
46.750000 -102.250000 3.525088
47.000000 -102.250000 3.513623
47.250000 -102.250000 3.516679
47.500000 -102.250000 3.522580
47.750000 -102.250000 3.536163
48.000000 -102.250000 3.536594
48.250000 -102.250000 3.539794
48.500000 -102.250000 3.528973
48.750000 -102.250000 3.532430
33.250000 -102.000000 3.471744
33.500000 -102.000000 3.474851
33.750000 -102.000000 3.480899
34.000000 -102.000000 3.472847
34.250000 -102.000000 3.476129
34.500000 -102.000000 3.468343
34.750000 -102.000000 3.472578
35.000000 -102.000000 3.472903
35.250000 -102.000000 3.473614
35.500000 -102.000000 3.471857
35.750000 -102.000000 3.475344
36.000000 -102.000000 3.478843
36.250000 -102.000000 3.482309
36.500000 -102.000000 3.488368
36.750000 -102.000000 3.495530
37.000000 -102.000000 3.501244
37.250000 -102.000000 3.508785
37.500000 -102.000000 3.515219
37.750000 -102.000000 3.518834
38.000000 -102.000000 3.521852
38.250000 -102.000000 3.520462
38.500000 -102.000000 3.516034
38.750000 -102.000000 3.511114
39.000000 -102.000000 3.511621
39.250000 -102.000000 3.509395
39.500000 -102.000000 3.507177
39.750000 -102.000000 3.507514
40.000000 -102.000000 3.509638
40.250000 -102.000000 3.503974
40.500000 -102.000000 3.501164
40.750000 -102.000000 3.506508
41.000000 -102.000000 3.500502
41.250000 -102.000000 3.494472
41.500000 -102.000000 3.507245
41.750000 -102.000000 3.510232
42.000000 -102.000000 3.500239
42.250000 -102.000000 3.495320
42.500000 -102.000000 3.493574
42.750000 -102.000000 3.479840
43.000000 -102.000000 3.503107
43.250000 -102.000000 3.514604
43.500000 -102.000000 3.511843
43.750000 -102.000000 3.512248
44.000000 -102.000000 3.521646
44.250000 -102.000000 3.523556
44.500000 -102.000000 3.535547
44.750000 -102.000000 3.520054
45.000000 -102.000000 3.541222
45.250000 -102.000000 3.548293
45.500000 -102.000000 3.547214
45.750000 -102.000000 3.543768
46.000000 -102.000000 3.533370
46.250000 -102.000000 3.513450
46.500000 -102.000000 3.524061
46.750000 -102.000000 3.515794
47.000000 -102.000000 3.516483
47.250000 -102.000000 3.521409
47.500000 -102.000000 3.526783
47.750000 -102.000000 3.533466
48.000000 -102.000000 3.537995
48.250000 -102.000000 3.546305
48.500000 -102.000000 3.539664
48.750000 -102.000000 3.538462
33.250000 -101.750000 3.477318
33.500000 -101.750000 3.479635
33.750000 -101.750000 3.485059
34.000000 -101.750000 3.477730
34.250000 -101.750000 3.471567
34.500000 -101.750000 3.470147
34.750000 -101.750000 3.470160
35.000000 -101.750000 3.472768
35.250000 -101.750000 3.470282
35.500000 -101.750000 3.473576
35.750000 -101.750000 3.477569
36.000000 -101.750000 3.478238
36.250000 -101.750000 3.481615
36.500000 -101.750000 3.486463
36.750000 -101.750000 3.491928
37.000000 -101.750000 3.498102
37.250000 -101.750000 3.504775
37.500000 -101.750000 3.510868
37.750000 -101.750000 3.515612
38.000000 -101.750000 3.520929
38.250000 -101.750000 3.515881
38.500000 -101.750000 3.507988
38.750000 -101.750000 3.507152
39.000000 -101.750000 3.510016
39.250000 -101.750000 3.509318
39.500000 -101.750000 3.511501
39.750000 -101.750000 3.506683
40.000000 -101.750000 3.516028
40.250000 -101.750000 3.509727
40.500000 -101.750000 3.508518
40.750000 -101.750000 3.506914
41.000000 -101.750000 3.503660
41.250000 -101.750000 3.500327
41.500000 -101.750000 3.502422
41.750000 -101.750000 3.511926
42.000000 -101.750000 3.506934
42.250000 -101.750000 3.485911
42.500000 -101.750000 3.493225
42.750000 -101.750000 3.490450
43.000000 -101.750000 3.494595
43.250000 -101.750000 3.513151
43.500000 -101.750000 3.516283
43.750000 -101.750000 3.512399
44.000000 -101.750000 3.522691
44.250000 -101.750000 3.525142
44.500000 -101.750000 3.532699
44.750000 -101.750000 3.530466
45.000000 -101.750000 3.534178
45.250000 -101.750000 3.528099
45.500000 -101.750000 3.539745
45.750000 -101.750000 3.517853
46.000000 -101.750000 3.522215
46.250000 -101.750000 3.527014
46.500000 -101.750000 3.522152
46.750000 -101.750000 3.520124
47.000000 -101.750000 3.523582
47.250000 -101.750000 3.526642
47.500000 -101.750000 3.534572
47.750000 -101.750000 3.535232
48.000000 -101.750000 3.542419
48.250000 -101.750000 3.542676
48.500000 -101.750000 3.539853
48.750000 -101.750000 3.537043
33.250000 -101.500000 3.477827
33.500000 -101.500000 3.478601
33.750000 -101.500000 3.480742
34.000000 -101.500000 3.478313
34.250000 -101.500000 3.468772
34.500000 -101.500000 3.465137
34.750000 -101.500000 3.468002
35.000000 -101.500000 3.468294
35.250000 -101.500000 3.466992
35.500000 -101.500000 3.467687
35.750000 -101.500000 3.474782
36.000000 -101.500000 3.478340
36.250000 -101.500000 3.481092
36.500000 -101.500000 3.484853
36.750000 -101.500000 3.489800
37.000000 -101.500000 3.494723
37.250000 -101.500000 3.502451
37.500000 -101.500000 3.509782
37.750000 -101.500000 3.514840
38.000000 -101.500000 3.515715
38.250000 -101.500000 3.514103
38.500000 -101.500000 3.511636
38.750000 -101.500000 3.510435
39.000000 -101.500000 3.510417
39.250000 -101.500000 3.512177
39.500000 -101.500000 3.510154
39.750000 -101.500000 3.514101
40.000000 -101.500000 3.517250
40.250000 -101.500000 3.514304
40.500000 -101.500000 3.518155
40.750000 -101.500000 3.509125
41.000000 -101.500000 3.508022
41.250000 -101.500000 3.510761
41.500000 -101.500000 3.515208
41.750000 -101.500000 3.508324
42.000000 -101.500000 3.508136
42.250000 -101.500000 3.494909
42.500000 -101.500000 3.502536
42.750000 -101.500000 3.508117
43.000000 -101.500000 3.502521
43.250000 -101.500000 3.514956
43.500000 -101.500000 3.512629
43.750000 -101.500000 3.515235
44.000000 -101.500000 3.525796
44.250000 -101.500000 3.535087
44.500000 -101.500000 3.539067
44.750000 -101.500000 3.535462
45.000000 -101.500000 3.527760
45.250000 -101.500000 3.525368
45.500000 -101.500000 3.537029
45.750000 -101.500000 3.529145
46.000000 -101.500000 3.523138
46.250000 -101.500000 3.529517
46.500000 -101.500000 3.522338
46.750000 -101.500000 3.524879
47.000000 -101.500000 3.523381
47.250000 -101.500000 3.514653
47.500000 -101.500000 3.531600
47.750000 -101.500000 3.539269
48.000000 -101.500000 3.539394
48.250000 -101.500000 3.542972
48.500000 -101.500000 3.545348
48.750000 -101.500000 3.536461
33.250000 -101.250000 3.482672
33.500000 -101.250000 3.482593
33.750000 -101.250000 3.484439
34.000000 -101.250000 3.479369
34.250000 -101.250000 3.469682
34.500000 -101.250000 3.467967
34.750000 -101.250000 3.467261
35.000000 -101.250000 3.465665
35.250000 -101.250000 3.467950
35.500000 -101.250000 3.466665
35.750000 -101.250000 3.472482
36.000000 -101.250000 3.477437
36.250000 -101.250000 3.482615
36.500000 -101.250000 3.484779
36.750000 -101.250000 3.489476
37.000000 -101.250000 3.493058
37.250000 -101.250000 3.501714
37.500000 -101.250000 3.509968
37.750000 -101.250000 3.514249
38.000000 -101.250000 3.517241
38.250000 -101.250000 3.515624
38.500000 -101.250000 3.514861
38.750000 -101.250000 3.515155
39.000000 -101.250000 3.516141
39.250000 -101.250000 3.509729
39.500000 -101.250000 3.514494
39.750000 -101.250000 3.512287
40.000000 -101.250000 3.517555
40.250000 -101.250000 3.517162
40.500000 -101.250000 3.519345
40.750000 -101.250000 3.512017
41.000000 -101.250000 3.511324
41.250000 -101.250000 3.515738
41.500000 -101.250000 3.504373
41.750000 -101.250000 3.489852
42.000000 -101.250000 3.494412
42.250000 -101.250000 3.489432
42.500000 -101.250000 3.500874
42.750000 -101.250000 3.493400
43.000000 -101.250000 3.488529
43.250000 -101.250000 3.516200
43.500000 -101.250000 3.521275
43.750000 -101.250000 3.531298
44.000000 -101.250000 3.530262
44.250000 -101.250000 3.539186
44.500000 -101.250000 3.544421
44.750000 -101.250000 3.536890
45.000000 -101.250000 3.532224
45.250000 -101.250000 3.529272
45.500000 -101.250000 3.523289
45.750000 -101.250000 3.530156
46.000000 -101.250000 3.537592
46.250000 -101.250000 3.519862
46.500000 -101.250000 3.521350
46.750000 -101.250000 3.520628
47.000000 -101.250000 3.510279
47.250000 -101.250000 3.531823
47.500000 -101.250000 3.530731
47.750000 -101.250000 3.530529
48.000000 -101.250000 3.540221
48.250000 -101.250000 3.541485
48.500000 -101.250000 3.552644
48.750000 -101.250000 3.540033
33.250000 -101.000000 3.483436
33.500000 -101.000000 3.485018
33.750000 -101.000000 3.487547
34.000000 -101.000000 3.481490
34.250000 -101.000000 3.475490
34.500000 -101.000000 3.470058
34.750000 -101.000000 3.472393
35.000000 -101.000000 3.469178
35.250000 -101.000000 3.465764
35.500000 -101.000000 3.467095
35.750000 -101.000000 3.475146
36.000000 -101.000000 3.474904
36.250000 -101.000000 3.484115
36.500000 -101.000000 3.485155
36.750000 -101.000000 3.489619
37.000000 -101.000000 3.494408
37.250000 -101.000000 3.501762
37.500000 -101.000000 3.506793
37.750000 -101.000000 3.510356
38.000000 -101.000000 3.512100
38.250000 -101.000000 3.510295
38.500000 -101.000000 3.513790
38.750000 -101.000000 3.520264
39.000000 -101.000000 3.523318
39.250000 -101.000000 3.518372
39.500000 -101.000000 3.521095
39.750000 -101.000000 3.515229
40.000000 -101.000000 3.518988
40.250000 -101.000000 3.516859
40.500000 -101.000000 3.517948
40.750000 -101.000000 3.522701
41.000000 -101.000000 3.515087
41.250000 -101.000000 3.513999
41.500000 -101.000000 3.512948
41.750000 -101.000000 3.511141
42.000000 -101.000000 3.487686
42.250000 -101.000000 3.515413
42.500000 -101.000000 3.487226
42.750000 -101.000000 3.492644
43.000000 -101.000000 3.491884
43.250000 -101.000000 3.524491
43.500000 -101.000000 3.522796
43.750000 -101.000000 3.529067
44.000000 -101.000000 3.534291
44.250000 -101.000000 3.545692
44.500000 -101.000000 3.556722
44.750000 -101.000000 3.548639
45.000000 -101.000000 3.540541
45.250000 -101.000000 3.537940
45.500000 -101.000000 3.538718
45.750000 -101.000000 3.540220
46.000000 -101.000000 3.528782
46.500000 -101.000000 3.527794
46.750000 -101.000000 3.516205
47.000000 -101.000000 3.526468
47.250000 -101.000000 3.527502
47.500000 -101.000000 3.523732
47.750000 -101.000000 3.529433
48.000000 -101.000000 3.539370
48.250000 -101.000000 3.546865
48.500000 -101.000000 3.550609
48.750000 -101.000000 3.553690
33.250000 -100.750000 3.489387
33.500000 -100.750000 3.494006
33.750000 -100.750000 3.482867
34.000000 -100.750000 3.480173
34.750000 -100.750000 3.475202
35.000000 -100.750000 3.468660
35.250000 -100.750000 3.467517
35.500000 -100.750000 3.471907
35.750000 -100.750000 3.477778
36.000000 -100.750000 3.481406
36.250000 -100.750000 3.483963
36.500000 -100.750000 3.487114
36.750000 -100.750000 3.491523
37.000000 -100.750000 3.497586
37.250000 -100.750000 3.500630
37.500000 -100.750000 3.509318
37.750000 -100.750000 3.513588
38.000000 -100.750000 3.507482
38.250000 -100.750000 3.510144
38.500000 -100.750000 3.514437
38.750000 -100.750000 3.525012
39.000000 -100.750000 3.522330
39.250000 -100.750000 3.515838
39.500000 -100.750000 3.513532
39.750000 -100.750000 3.511583
40.000000 -100.750000 3.512099
40.250000 -100.750000 3.516325
40.500000 -100.750000 3.519925
40.750000 -100.750000 3.525716
41.000000 -100.750000 3.520309
41.250000 -100.750000 3.523256
41.500000 -100.750000 3.515496
41.750000 -100.750000 3.497021
42.000000 -100.750000 3.506298
42.250000 -100.750000 3.481440
42.500000 -100.750000 3.498749
42.750000 -100.750000 3.501132
43.000000 -100.750000 3.509821
43.250000 -100.750000 3.517584
43.500000 -100.750000 3.526500
43.750000 -100.750000 3.531622
44.000000 -100.750000 3.544346
44.250000 -100.750000 3.552045
44.500000 -100.750000 3.554669
44.750000 -100.750000 3.550508
46.250000 -100.750000 3.537540
46.500000 -100.750000 3.530241
46.750000 -100.750000 3.529831
47.000000 -100.750000 3.526665
47.250000 -100.750000 3.529995
47.500000 -100.750000 3.522257
47.750000 -100.750000 3.529520
48.000000 -100.750000 3.539568
48.250000 -100.750000 3.546988
48.500000 -100.750000 3.542966
48.750000 -100.750000 3.543665
33.250000 -100.500000 3.486307
33.500000 -100.500000 3.491661
33.750000 -100.500000 3.492433
34.000000 -100.500000 3.480398
37.250000 -100.500000 3.498651
37.500000 -100.500000 3.508949
37.750000 -100.500000 3.507217
38.000000 -100.500000 3.508253
38.250000 -100.500000 3.511482
38.500000 -100.500000 3.514171
38.750000 -100.500000 3.519712
39.000000 -100.500000 3.520828
39.250000 -100.500000 3.516485
39.500000 -100.500000 3.515715
39.750000 -100.500000 3.505913
40.000000 -100.500000 3.513791
40.250000 -100.500000 3.513144
40.500000 -100.500000 3.520450
40.750000 -100.500000 3.527516
41.000000 -100.500000 3.512544
42.000000 -100.500000 3.481072
42.250000 -100.500000 3.501034
42.500000 -100.500000 3.511422
42.750000 -100.500000 3.519333
43.000000 -100.500000 3.512832
43.250000 -100.500000 3.523072
